# .PCD v.7 - Point Cloud Data file format
VERSION .7
FIELDS x y z rgb
SIZE 4 4 4 4
TYPE F F F F
COUNT 1 1 1 1
WIDTH 1047
HEIGHT 1
VIEWPOINT 0 0 0 1 0 0 0
POINTS 1047
DATA ascii
-0.18888572 0.019460952 0.60100001 1.3274723e-38
-0.1865962 0.019460952 0.60100001 1.2168025e-38
-0.18400002 0.019428574 0.60000002 1.2997786e-38
-0.18171428 0.019428574 0.60000002 1.2259132e-38
-0.18002668 0.019493336 0.60200006 1.2443523e-38
-0.17773335 0.019493336 0.60200006 1.2999205e-38
-0.17544001 0.019493336 0.60200006 1.3275792e-38
-0.17285904 0.019460952 0.60100001 1.2258053e-38
-0.17056952 0.019460952 0.60100001 1.3272205e-38
-0.16828001 0.019460952 0.60100001 1.3733902e-38
-0.1654381 0.019396191 0.59900004 1.3088533e-38
-0.1631562 0.019396191 0.59900004 1.3273284e-38
-0.16087429 0.019396191 0.59900004 1.336548e-38
-0.1591219 0.019460952 0.60100001 1.2998852e-38
-0.1573543 0.019525714 0.60300004 1.3275439e-38
-0.15480001 0.019493336 0.60200006 1.3089949e-38
-0.15225333 0.019460952 0.60100001 1.3827514e-38
-0.14996381 0.019460952 0.60100001 1.2814101e-38
-0.14742857 0.019428574 0.60000002 1.345947e-38
-0.14514287 0.019428574 0.60000002 1.4010839e-38
-0.14309524 0.019460952 0.60100001 1.3642057e-38
-0.14080572 0.019460952 0.60100001 1.3733889e-38
-0.13851619 0.019460952 0.60100001 1.3272911e-38
-0.13622667 0.019460952 0.60100001 1.3456236e-38
-0.13416001 0.019493336 0.60200006 1.4101606e-38
-0.13164762 0.019460952 0.60100001 1.3917925e-38
-0.12914287 0.019428574 0.60000002 1.2166208e-38
-0.12664573 0.019396191 0.59900004 1.3272546e-38
-0.12436381 0.019396191 0.59900004 1.4102306e-38
-0.12208191 0.019396191 0.59900004 1.327364e-38
-0.11980001 0.019396191 0.59900004 1.3919009e-38
-0.11771429 0.019428574 0.60000002 1.4103388e-38
-0.11542857 0.019428574 0.60000002 1.3826801e-38
-0.11314286 0.019428574 0.60000002 1.4195231e-38
-0.11085714 0.019428574 0.60000002 1.4287426e-38
-0.10857143 0.019428574 0.60000002 1.4009757e-38
-0.10628572 0.019428574 0.60000002 1.4286344e-38
-0.104 0.019428574 0.60000002 1.4286344e-38
-0.10188381 0.019460952 0.60100001 1.5023909e-38
-0.099594288 0.019460952 0.60100001 1.5207224e-38
-0.097304761 0.019460952 0.60100001 1.4008681e-38
-0.095015235 0.019460952 0.60100001 1.4473269e-38
-0.092725717 0.019460952 0.60100001 1.2537161e-38
-0.09043619 0.019460952 0.60100001 1.3364769e-38
-0.088146664 0.019460952 0.60100001 1.4839899e-38
-0.085857145 0.019460952 0.60100001 1.5484888e-38
-0.083567619 0.019460952 0.60100001 1.5300496e-38
-0.081278101 0.019460952 0.60100001 1.6130976e-38
-0.078988574 0.019460952 0.60100001 1.6130976e-38
-0.076699048 0.019460952 0.60100001 1.4932796e-38
-0.074533343 0.019493336 0.60200006 1.4195231e-38
-0.072360002 0.019525714 0.60300004 1.3367628e-38
-0.070062861 0.019525714 0.60300004 1.4197389e-38
-0.067653336 0.019493336 0.60200006 1.447397e-38
-0.065360002 0.019493336 0.60200006 1.4658361e-38
-0.063066676 0.019493336 0.60200006 1.4931726e-38
-0.060773339 0.019493336 0.60200006 1.4747335e-38
-0.058480006 0.019493336 0.60200006 1.6037358e-38
-0.056186672 0.019493336 0.60200006 1.5484184e-38
-0.053893339 0.019493336 0.60200006 1.6219569e-38
-0.051685717 0.019525714 0.60300004 1.7325916e-38
-0.049306668 0.019493336 0.60200006 1.6590166e-38
-0.047013339 0.019493336 0.60200006 1.6036992e-38
-0.044720005 0.019493336 0.60200006 1.6037701e-38
-0.042426672 0.019493336 0.60200006 1.5300136e-38
-0.040200002 0.019525714 0.60300004 1.6223547e-38
-0.037902862 0.019525714 0.60300004 1.5301591e-38
-0.035605714 0.019525714 0.60300004 1.5116836e-38
-0.033198096 0.019460952 0.60100001 1.7329532e-38
-0.030908573 0.019460952 0.60100001 1.6591611e-38
-0.028619049 0.019460952 0.60100001 1.6868198e-38
-0.026329523 0.019460952 0.60100001 1.7238765e-38
-0.024040001 0.019460952 0.60100001 1.65012e-38
-0.021750478 0.019460952 0.60100001 1.6684878e-38
-0.019460952 0.019460952 0.60100001 1.6684878e-38
-0.017200001 0.019493336 0.60200006 1.7238768e-38
-0.014906668 0.019493336 0.60200006 1.7238768e-38
-0.012613335 0.019493336 0.60200006 1.7792292e-38
-0.010320001 0.019493336 0.60200006 1.8068879e-38
-0.0080266669 0.019493336 0.60200006 1.7331334e-38
-0.0057333335 0.019493336 0.60200006 1.677816e-38
-0.0034400003 0.019493336 0.60200006 1.6407207e-38
-0.0011485715 0.019525714 0.60300004 1.760575e-38
0.0011485715 0.019525714 0.60300004 1.7607548e-38
0.0034400003 0.019493336 0.60200006 1.8529504e-38
0.0057333335 0.019493336 0.60200006 1.8714621e-38
0.0080266669 0.019493336 0.60200006 1.8622426e-38
0.010320001 0.019493336 0.60200006 1.9265647e-38
0.012634287 0.019525714 0.60300004 1.8804669e-38
0.01493143 0.019525714 0.60300004 1.5854749e-38
0.017228574 0.019525714 0.60300004 1.7145488e-38
0.019525714 0.019525714 0.60300004 1.9264558e-38
0.021822859 0.019525714 0.60300004 1.8711384e-38
0.024120001 0.019525714 0.60300004 1.7883068e-38
0.026417146 0.019525714 0.60300004 1.8344046e-38
0.028714286 0.019525714 0.60300004 1.769904e-38
0.031011432 0.019525714 0.60300004 1.6777084e-38
0.033308573 0.019525714 0.60300004 1.7792315e-38
0.035605714 0.019525714 0.60300004 1.8345488e-38
0.037902862 0.019525714 0.60300004 1.7514999e-38
0.040200002 0.019525714 0.60300004 1.8897934e-38
0.042497143 0.019525714 0.60300004 1.8436958e-38
0.044794288 0.019525714 0.60300004 1.7791589e-38
0.047091432 0.019525714 0.60300004 1.7884135e-38
0.049470481 0.019558096 0.60400003 1.8437308e-38
0.051685717 0.019525714 0.60300004 1.8437328e-38
0.053982858 0.019525714 0.60300004 1.8806111e-38
0.056373335 0.019558096 0.60400003 1.8715713e-38
0.058674287 0.019558096 0.60400003 1.8623517e-38
0.060975239 0.019558096 0.60400003 1.8161457e-38
0.063276194 0.019558096 0.60400003 1.8899022e-38
0.065794282 0.019622857 0.60600001 1.9173807e-38
0.068102859 0.019622857 0.60600001 1.8989416e-38
0.070411429 0.019622857 0.60600001 1.898906e-38
0.072719999 0.019622857 0.60600001 1.8620277e-38
0.075028569 0.019622857 0.60600001 1.908377e-38
0.077337146 0.019622857 0.60600001 1.8714987e-38
0.079645708 0.019622857 0.60600001 1.733206e-38
0.082089528 0.019655241 0.60700005 1.8991581e-38
0.084401913 0.019655241 0.60700005 1.9083051e-38
0.086857148 0.019687619 0.60800004 1.8622072e-38
0.089026667 0.019655241 0.60700005 1.9174167e-38
0.091339052 0.019655241 0.60700005 1.9358559e-38
0.093805723 0.019687619 0.60800004 1.9544395e-38
0.096121915 0.019687619 0.60800004 1.9452199e-38
0.098438099 0.019687619 0.60800004 1.945148e-38
0.10075429 0.019687619 0.60800004 1.8529524e-38
0.10307048 0.019687619 0.60800004 1.8530603e-38
0.10538667 0.019687619 0.60800004 1.7424255e-38
0.10770286 0.019687619 0.60800004 1.8251495e-38
0.11001905 0.019687619 0.60800004 2.0003212e-38
0.11233525 0.019687619 0.60800004 1.8898657e-38
0.11465143 0.019687619 0.60800004 2.0005004e-38
0.11696763 0.019687619 0.60800004 1.945076e-38
0.11948 0.019720001 0.60900003 1.945076e-38
0.12180001 0.019720001 0.60900003 1.7700482e-38
0.12412 0.019720001 0.60900003 1.8714634e-38
0.12644 0.019720001 0.60900003 1.8805388e-38
0.12876001 0.019720001 0.60900003 1.9266366e-38
0.13108 0.019720001 0.60900003 1.8896867e-38
0.13318096 0.019687619 0.60800004 1.8435889e-38
0.13549714 0.019687619 0.60800004 1.8067825e-38
0.13804001 0.019720001 0.60900003 1.8160021e-38
0.14036 0.019720001 0.60900003 1.5305569e-38
0.14268 0.019720001 0.60900003 1.4936786e-38
0.14523809 0.019752381 0.61000001 1.7791233e-38
0.14756191 0.019752381 0.61000001 1.742245e-38
0.14988571 0.019752381 0.61000001 1.6313592e-38
0.15220954 0.019752381 0.61000001 1.7419939e-38
0.15453334 0.019752381 0.61000001 1.6686327e-38
0.15711428 0.019784762 0.611 1.6594132e-38
0.1594419 0.019784762 0.611 1.6502299e-38
0.16176952 0.019784762 0.611 1.5856929e-38
0.16409715 0.019784762 0.611 1.6037736e-38
0.16642477 0.019784762 0.611 1.3917237e-38
0.16875239 0.019784762 0.611 1.4748067e-38
0.17108001 0.019784762 0.611 1.4287088e-38
0.17369144 0.019817146 0.61200005 1.4840978e-38
0.17602287 0.019817146 0.61200005 1.5301956e-38
0.17835431 0.019817146 0.61200005 1.4471815e-38
0.18068573 0.019817146 0.61200005 1.4379619e-38
0.18301715 0.019817146 0.61200005 1.2995981e-38
0.18534859 0.019817146 0.61200005 1.3917937e-38
0.18768001 0.019817146 0.61200005 1.4285265e-38
0.19001144 0.019817146 0.61200005 1.3271113e-38
0.19234288 0.019817146 0.61200005 1.2811946e-38
0.19499238 0.019849524 0.61300004 1.271975e-38
0.19732763 0.019849524 0.61300004 1.2719021e-38
0.19966286 0.019849524 0.61300004 1.318e-38
0.2019981 0.019849524 0.61300004 1.1704519e-38
0.20433335 0.019849524 0.61300004 1.1612324e-38
0.20666859 0.019849524 0.61300004 1.0968018e-38
0.20968571 0.019914286 0.61500001 1.13368e-38
0.21202858 0.019914286 0.61500001 1.1060952e-38
0.21437143 0.019914286 0.61500001 1.1245343e-38
0.21671429 0.019914286 0.61500001 9.9571126e-39
0.21905714 0.019914286 0.61500001 9.5883301e-39
0.22139999 0.019914286 0.61500001 9.3099439e-39
0.22374286 0.019914286 0.61500001 9.7709221e-39
0.22571811 0.019881906 0.61400002 1.0781829e-38
0.22805715 0.019881906 0.61400002 1.0136459e-38
0.23077142 0.019914286 0.61500001 1.0595998e-38
0.23311429 0.019914286 0.61500001 1.0780389e-38
0.23545715 0.019914286 0.61500001 1.0137178e-38
0.2378 0.019914286 0.61500001 1.0044982e-38
0.24014287 0.019914286 0.61500001 9.7716255e-39
0.24248572 0.019914286 0.61500001 8.3886911e-39
0.24482858 0.019914286 0.61500001 9.1273547e-39
0.24757336 0.019946668 0.61600006 9.4961373e-39
0.24992001 0.019946668 0.61600006 1.013861e-38
0.25308573 0.020011429 0.61800003 9.5854364e-39
0.25544 0.020011429 0.61800003 8.570581e-39
0.25779429 0.020011429 0.61800003 9.6769286e-39
0.26014858 0.020011429 0.61800003 9.1262561e-39
0.26250288 0.020011429 0.61800003 9.402843e-39
0.26528573 0.020043811 0.61900002 1.0227216e-38
0.26764381 0.020043811 0.61900002 1.0227216e-38
0.27000192 0.020043811 0.61900002 9.3063286e-39
0.27236 0.020043811 0.61900002 9.6751111e-39
0.27427429 0.020011429 0.61800003 8.7531744e-39
0.27662858 0.020011429 0.61800003 8.6609788e-39
0.27898285 0.020011429 0.61800003 8.6624011e-39
0.2817924 0.020043811 0.61900002 9.3077705e-39
0.28415048 0.020043811 0.61900002 8.8486099e-39
0.28650859 0.020043811 0.61900002 8.9408055e-39
0.28886667 0.020043811 0.61900002 9.0293886e-39
0.29122478 0.020043811 0.61900002 9.2137798e-39
0.29358289 0.020043811 0.61900002 9.76589e-39
0.29594097 0.020043811 0.61900002 9.3049119e-39
0.29878095 0.020076191 0.62 9.0283222e-39
0.30162859 0.020108573 0.62100005 8.8439309e-39
0.3039943 0.020108573 0.62100005 8.2921991e-39
0.30636004 0.020108573 0.62100005 6.4482865e-39
0.30922288 0.020140953 0.62200004 8.1088868e-39
0.3115924 0.020140953 0.62200004 8.3854737e-39
0.31396192 0.020140953 0.62200004 8.7531576e-39
0.31633145 0.020140953 0.62200004 9.1219401e-39
nan nan nan 7.7433413e-39
nan nan nan 7.3745588e-39
nan nan nan 8.6605822e-39
nan nan nan 8.7527779e-39
nan nan nan 7.9248459e-39
nan nan nan 7.5560634e-39
nan nan nan 8.0159653e-39
nan nan nan 8.0159653e-39
nan nan nan 8.4754889e-39
nan nan nan 8.3832933e-39
nan nan nan 7.7400945e-39
nan nan nan 6.6337469e-39
nan nan nan 7.8326503e-39
nan nan nan 7.8326503e-39
nan nan nan 7.4620531e-39
nan nan nan 7.8308356e-39
nan nan nan 7.8301167e-39
nan nan nan 9.489638e-39
nan nan nan 7.8326503e-39
nan nan nan 7.9248459e-39
nan nan nan 7.5549844e-39
nan nan nan 8.2003538e-39
nan nan nan 7.3734672e-39
nan nan nan 6.3593152e-39
nan nan nan 7.7393854e-39
nan nan nan 7.2784073e-39
nan nan nan 1.1704504e-38
nan nan nan 1.2165482e-38
nan nan nan 1.087727e-38
nan nan nan 1.0600683e-38
-0.3678686 0.022474287 0.62100005 1.0509911e-38
-0.36550289 0.022474287 0.62100005 9.6801502e-39
-0.36255237 0.022438094 0.62 1.0879072e-38
-0.3578667 0.022293337 0.61600006 1.0602485e-38
-0.35552001 0.022293337 0.61600006 1.1798494e-38
-0.35432002 0.022365715 0.61800003 1.0692147e-38
-0.35310477 0.022438094 0.62 1.0510286e-38
-0.35074285 0.022438094 0.62 1.0694678e-38
-0.34557143 0.022257144 0.61500001 1.1060213e-38
-0.3426705 0.022220952 0.61400002 1.13368e-38
-0.34033144 0.022220952 0.61400002 1.1247491e-38
-0.33799237 0.022220952 0.61400002 1.0325535e-38
-0.33565333 0.022220952 0.61400002 1.0695772e-38
-0.3333143 0.022220952 0.61400002 1.0603576e-38
-0.33097526 0.022220952 0.61400002 1.1061661e-38
-0.3286362 0.022220952 0.61400002 1.1799226e-38
-0.32682857 0.022257144 0.61500001 1.1340047e-38
-0.32448569 0.022257144 0.61500001 1.1524438e-38
-0.32214284 0.022257144 0.61500001 1.1890687e-38
-0.31876004 0.022184763 0.61300004 1.2075079e-38
-0.31539237 0.022112381 0.611 1.143223e-38
-0.31306475 0.022112381 0.611 1.1247839e-38
-0.31073713 0.022112381 0.611 1.2258394e-38
-0.30840951 0.022112381 0.611 1.170522e-38
-0.30508 0.02204 0.60900003 1.1707753e-38
-0.30276 0.02204 0.60900003 1.1892145e-38
-0.30093333 0.022076191 0.61000001 1.2443523e-38
-0.29958859 0.022148574 0.61200005 1.1982545e-38
-0.29725716 0.022148574 0.61200005 1.0690377e-38
-0.29588953 0.022220952 0.61400002 9.4918339e-39
-0.29355046 0.022220952 0.61400002 1.0143305e-38
-0.29026288 0.022148574 0.61200005 1.0419891e-38
-0.28793147 0.022148574 0.61200005 1.1983236e-38
-0.28653336 0.022220952 0.61400002 1.2259823e-38
-0.2832686 0.022148574 0.61200005 1.2539297e-38
-0.28093714 0.022148574 0.61200005 1.226271e-38
-0.27860573 0.022148574 0.61200005 1.2076883e-38
-0.27627429 0.022148574 0.61200005 1.1892492e-38
-0.27394286 0.022148574 0.61200005 1.1892492e-38
-0.27161145 0.022148574 0.61200005 1.2169079e-38
-0.26972002 0.022184763 0.61300004 1.2353123e-38
-0.26782095 0.022220952 0.61400002 1.1523362e-38
-0.26548192 0.022220952 0.61400002 1.1893577e-38
-0.26185715 0.022112381 0.611 1.1893577e-38
-0.25952953 0.022112381 0.611 1.2811567e-38
-0.25678095 0.022076191 0.61000001 1.2442785e-38
-0.25445715 0.022076191 0.61000001 1.262971e-38
-0.25254667 0.022112381 0.611 1.2353123e-38
-0.25062859 0.022148574 0.61200005 1.2537864e-38
-0.24829714 0.022148574 0.61200005 1.263006e-38
-0.24556382 0.022112381 0.611 1.2076536e-38
-0.2428381 0.022076191 0.61000001 1.2168732e-38
-0.24012001 0.02204 0.60900003 1.1523362e-38
-0.23780002 0.02204 0.60900003 1.1892145e-38
-0.23548001 0.02204 0.60900003 1.3089233e-38
-0.23316 0.02204 0.60900003 1.3181429e-38
-0.23121904 0.022076191 0.61000001 1.3735701e-38
-0.22852001 0.02204 0.60900003 1.2352767e-38
-0.2262 0.02204 0.60900003 1.290736e-38
-0.22388001 0.02204 0.60900003 1.290736e-38
-0.22083241 0.021967622 0.60700005 1.2814101e-38
-0.21852002 0.021967622 0.60700005 1.2537514e-38
-0.21620764 0.021967622 0.60700005 1.336583e-38
-0.21389526 0.021967622 0.60700005 1.336583e-38
-0.21123429 0.021931428 0.60600001 1.3366922e-38
-0.20892572 0.021931428 0.60600001 1.38279e-38
-0.20661713 0.021931428 0.60600001 1.2907366e-38
-0.20430857 0.021931428 0.60600001 1.2907366e-38
-0.20233335 0.021967622 0.60700005 1.2812309e-38
-0.20002097 0.021967622 0.60700005 1.2627917e-38
-0.1980343 0.022003811 0.60800004 1.3088883e-38
-0.19571811 0.022003811 0.60800004 1.3642057e-38
-0.19308382 0.021967622 0.60700005 1.3641706e-38
-0.19045714 0.021931428 0.60600001 1.2996337e-38
-0.18752763 0.02185905 0.60400003 1.2632599e-38
-0.18522666 0.02185905 0.60400003 1.2909186e-38
-0.18292572 0.02185905 0.60400003 1.3273634e-38
-0.18122286 0.021931428 0.60600001 1.3089243e-38
-0.17891428 0.021931428 0.60600001 1.2351305e-38
-0.17660572 0.021931428 0.60600001 1.3826435e-38
-0.17429715 0.021931428 0.60600001 1.345947e-38
-0.17142096 0.02185905 0.60400003 1.3736057e-38
-0.16912 0.02185905 0.60400003 1.3920802e-38
-0.16654286 0.021822859 0.60300004 1.373641e-38
-0.16424572 0.021822859 0.60300004 1.4102669e-38
-0.16221714 0.02185905 0.60400003 1.4840234e-38
-0.15991619 0.02185905 0.60400003 1.4102309e-38
-0.15761524 0.02185905 0.60400003 1.4010113e-38
-0.15531428 0.02185905 0.60400003 1.2903766e-38
-0.15301333 0.02185905 0.60400003 1.4102309e-38
-0.15071239 0.02185905 0.60400003 1.3088157e-38
-0.14816572 0.021822859 0.60300004 1.3272548e-38
-0.14586858 0.021822859 0.60300004 1.4378903e-38
-0.14357144 0.021822859 0.60300004 1.4102316e-38
-0.14150858 0.02185905 0.60400003 1.364277e-38
-0.13920763 0.02185905 0.60400003 1.3827161e-38
-0.13690668 0.02185905 0.60400003 1.3918653e-38
-0.13460572 0.02185905 0.60400003 1.4379632e-38
-0.13230477 0.02185905 0.60400003 1.4010836e-38
-0.12978858 0.021822859 0.60300004 1.4010836e-38
-0.12749144 0.021822859 0.60300004 1.5117184e-38
-0.12540191 0.02185905 0.60400003 1.456401e-38
-0.12289715 0.021822859 0.60300004 1.3553108e-38
-0.12060001 0.021822859 0.60300004 1.2907739e-38
-0.11849905 0.02185905 0.60400003 1.4565442e-38
-0.1161981 0.02185905 0.60400003 1.355129e-38
-0.11521714 0.022112381 0.611 1.3275792e-38
-0.11122668 0.021786667 0.60200006 1.2630423e-38
-0.10893334 0.021786667 0.60200006 1.4471104e-38
-0.10664 0.021786667 0.60200006 1.4378909e-38
-0.10452001 0.021822859 0.60300004 1.3826808e-38
-0.10205334 0.021786667 0.60200006 1.3550221e-38
-0.099760011 0.021786667 0.60200006 1.5118269e-38
-0.097466677 0.021786667 0.60200006 1.4380704e-38
-0.095331438 0.021822859 0.60300004 1.4197035e-38
-0.09303429 0.021822859 0.60300004 1.262971e-38
-0.090737149 0.021822859 0.60300004 1.3272921e-38
-0.088440008 0.021822859 0.60300004 1.5485616e-38
-0.08614286 0.021822859 0.60300004 1.5300847e-38
-0.08384572 0.021822859 0.60300004 1.5761825e-38
-0.081548579 0.021822859 0.60300004 1.5117184e-38
-0.079251431 0.021822859 0.60300004 1.4840597e-38
-0.076954298 0.021822859 0.60300004 1.4746619e-38
-0.074780956 0.02185905 0.60400003 1.5023206e-38
-0.072719999 0.021931428 0.60600001 1.4656556e-38
-0.070411429 0.021931428 0.60600001 1.4287774e-38
-0.068102859 0.021931428 0.60600001 1.4932433e-38
-0.065794282 0.021931428 0.60600001 1.456365e-38
-0.063485719 0.021931428 0.60600001 1.3642067e-38
-0.061177142 0.021931428 0.60600001 1.2535719e-38
-0.058868572 0.021931428 0.60600001 1.4560057e-38
-0.056373335 0.02185905 0.60400003 1.5942992e-38
-0.053982858 0.021822859 0.60300004 1.511755e-38
-0.051685717 0.021822859 0.60300004 1.4195593e-38
-0.049470481 0.02185905 0.60400003 1.4656209e-38
-0.047169525 0.02185905 0.60400003 1.48406e-38
-0.044868574 0.02185905 0.60400003 1.4931717e-38
-0.042567622 0.02185905 0.60400003 1.5392695e-38
-0.040400002 0.021931428 0.60600001 1.6040222e-38
-0.038091429 0.021931428 0.60600001 1.4011918e-38
-0.035782855 0.021931428 0.60600001 1.5301931e-38
-0.033253338 0.021786667 0.60200006 1.6684866e-38
-0.030960003 0.021786667 0.60200006 1.5854409e-38
-0.028714286 0.021822859 0.60300004 1.5116843e-38
-0.026417146 0.021822859 0.60300004 1.4287426e-38
-0.024120001 0.021822859 0.60300004 1.5670361e-38
-0.021786667 0.021786667 0.60200006 1.5208676e-38
-0.019493336 0.021786667 0.60200006 1.4839894e-38
-0.017200001 0.021786667 0.60200006 1.640396e-38
-0.01493143 0.021822859 0.60300004 1.5113221e-38
-0.012634287 0.021822859 0.60300004 1.6223506e-38
-0.010337144 0.021822859 0.60300004 1.6592289e-38
-0.0080400007 0.021822859 0.60300004 1.5485626e-38
-0.0057523814 0.02185905 0.60400003 1.4655865e-38
-0.0034514286 0.02185905 0.60400003 1.3827161e-38
-0.0011485715 0.021822859 0.60300004 1.4749118e-38
0.0011485715 0.021822859 0.60300004 1.5025354e-38
0.0034457145 0.021822859 0.60300004 1.5394137e-38
0.0057428577 0.021822859 0.60300004 1.5488841e-38
0.0080400007 0.021822859 0.60300004 1.5212254e-38
0.010337144 0.021822859 0.60300004 1.5025001e-38
0.012655239 0.02185905 0.60400003 1.5762566e-38
0.01493143 0.021822859 0.60300004 1.6130973e-38
0.017228574 0.021822859 0.60300004 1.6223169e-38
0.019558096 0.02185905 0.60400003 1.5488137e-38
0.02185905 0.02185905 0.60400003 1.4842768e-38
0.024160001 0.02185905 0.60400003 1.4841676e-38
0.026460955 0.02185905 0.60400003 1.6132415e-38
0.028761905 0.02185905 0.60400003 1.4749866e-38
0.031062858 0.02185905 0.60400003 1.3643518e-38
0.033363812 0.02185905 0.60400003 1.5116836e-38
0.035664763 0.02185905 0.60400003 1.6407575e-38
0.037965715 0.02185905 0.60400003 1.5854026e-38
0.04026667 0.02185905 0.60400003 1.5577439e-38
0.042567622 0.02185905 0.60400003 1.3737842e-38
0.044868574 0.02185905 0.60400003 1.4475408e-38
0.047169525 0.02185905 0.60400003 1.4933509e-38
0.049470481 0.02185905 0.60400003 1.5210096e-38
0.051771432 0.02185905 0.60400003 1.5391988e-38
0.054072384 0.02185905 0.60400003 1.5299793e-38
0.056559999 0.021931428 0.60600001 1.649796e-38
0.058868572 0.021931428 0.60600001 1.714333e-38
0.061177142 0.021931428 0.60600001 1.5763635e-38
0.063485719 0.021931428 0.60600001 1.4749483e-38
0.065794282 0.021931428 0.60600001 1.5577446e-38
0.068102859 0.021931428 0.60600001 1.6038424e-38
0.070527628 0.021967622 0.60700005 1.7142256e-38
0.072840005 0.021967622 0.60700005 1.6957865e-38
0.075028569 0.021931428 0.60600001 1.7329163e-38
0.077337146 0.021931428 0.60600001 1.6038424e-38
0.079645708 0.021931428 0.60600001 1.6130988e-38
0.082089528 0.021967622 0.60700005 1.6038793e-38
0.084401913 0.021967622 0.60700005 1.677851e-38
0.086857148 0.022003811 0.60800004 1.5118989e-38
0.089173339 0.022003811 0.60800004 1.6683065e-38
0.091489524 0.022003811 0.60800004 1.7512826e-38
0.093805723 0.022003811 0.60800004 1.8344412e-38
0.096280001 0.02204 0.60900003 1.6039521e-38
0.098438099 0.022003811 0.60800004 1.5669642e-38
0.10075429 0.022003811 0.60800004 1.6775989e-38
0.10307048 0.022003811 0.60800004 1.6683431e-38
0.10538667 0.022003811 0.60800004 1.7420996e-38
0.10770286 0.022003811 0.60800004 1.7146217e-38
0.11001905 0.022003811 0.60800004 1.686963e-38
0.11233525 0.022003811 0.60800004 1.723696e-38
0.11465143 0.022003811 0.60800004 1.788233e-38
0.11696763 0.022003811 0.60800004 1.7421359e-38
0.11948 0.02204 0.60900003 1.7697946e-38
0.12180001 0.02204 0.60900003 1.7698311e-38
0.12412 0.02204 0.60900003 1.7698311e-38
0.12644 0.02204 0.60900003 1.7329529e-38
0.12876001 0.02204 0.60900003 1.8251485e-38
0.13108 0.02204 0.60900003 1.8252214e-38
0.13318096 0.022003811 0.60800004 1.8160018e-38
0.13549714 0.022003811 0.60800004 1.7606116e-38
0.13804001 0.02204 0.60900003 1.7882703e-38
0.14036 0.02204 0.60900003 1.7698321e-38
0.14268 0.02204 0.60900003 1.7145147e-38
0.14523809 0.022076191 0.61000001 1.7698321e-38
0.14756191 0.022076191 0.61000001 1.7329539e-38
0.14988571 0.022076191 0.61000001 1.7791233e-38
0.15220954 0.022076191 0.61000001 1.7145863e-38
0.15453334 0.022076191 0.61000001 1.5393418e-38
0.15711428 0.022112381 0.611 1.6038787e-38
0.1594419 0.022112381 0.611 1.6870353e-38
0.16176952 0.022112381 0.611 1.8161092e-38
0.16409715 0.022112381 0.611 1.9083782e-38
0.16642477 0.022112381 0.611 1.723987e-38
0.16875239 0.022112381 0.611 1.742245e-38
0.17108001 0.022112381 0.611 1.6684885e-38
0.17369144 0.022148574 0.61200005 1.7235535e-38
0.17602287 0.022148574 0.61200005 1.7512122e-38
0.17835431 0.022148574 0.61200005 1.7236251e-38
0.18068573 0.022148574 0.61200005 1.7881621e-38
0.18301715 0.022148574 0.61200005 1.7144784e-38
0.18534859 0.022148574 0.61200005 1.6591611e-38
0.18768001 0.022148574 0.61200005 1.6316809e-38
0.19001144 0.022148574 0.61200005 1.5579244e-38
0.19234288 0.022148574 0.61200005 1.6406847e-38
0.19499238 0.022184763 0.61300004 1.5023912e-38
0.19732763 0.022184763 0.61300004 1.4933877e-38
0.19966286 0.022184763 0.61300004 1.5118269e-38
0.2019981 0.022184763 0.61300004 1.4932445e-38
0.20433335 0.022184763 0.61300004 1.4748054e-38
0.20666859 0.022184763 0.61300004 1.4011205e-38
0.20934477 0.022220952 0.61400002 1.4011205e-38
0.21202858 0.022257144 0.61500001 1.4012657e-38
0.21402287 0.022220952 0.61400002 1.3275092e-38
0.21636191 0.022220952 0.61400002 1.3736057e-38
0.21870095 0.022220952 0.61400002 1.2353123e-38
0.22139999 0.022257144 0.61500001 1.2719375e-38
0.22337905 0.022220952 0.61400002 1.2442788e-38
0.22571811 0.022220952 0.61400002 1.216728e-38
0.22805715 0.022220952 0.61400002 1.2351671e-38
0.2303962 0.022220952 0.61400002 1.106346e-38
0.23311429 0.022257144 0.61500001 1.0694678e-38
0.23545715 0.022257144 0.61500001 1.1245323e-38
0.2378 0.022257144 0.61500001 1.1614106e-38
0.24014287 0.022257144 0.61500001 1.1520829e-38
0.24248572 0.022257144 0.61500001 1.1520829e-38
0.24482858 0.022257144 0.61500001 1.1519043e-38
0.24717143 0.022257144 0.61500001 1.1334652e-38
0.24951427 0.022257144 0.61500001 1.1060204e-38
0.25226671 0.022293337 0.61600006 1.1705573e-38
0.25461334 0.022293337 0.61600006 1.0968371e-38
0.25696 0.022293337 0.61600006 9.677632e-39
0.2593067 0.022293337 0.61600006 1.0043896e-38
0.26165336 0.022293337 0.61600006 1.0043896e-38
0.264 0.022293337 0.61600006 1.133679e-38
0.26634669 0.022293337 0.61600006 1.0691421e-38
0.26869336 0.022293337 0.61600006 1.0320483e-38
0.27104002 0.022293337 0.61600006 9.8595052e-39
0.27338669 0.022293337 0.61600006 9.4950555e-39
0.27573335 0.022293337 0.61600006 9.1262729e-39
0.27808005 0.022293337 0.61600006 9.4896507e-39
0.28133717 0.022365715 0.61800003 1.0042824e-38
0.28369144 0.022365715 0.61800003 9.3070671e-39
0.28512004 0.022293337 0.61600006 9.8602408e-39
0.28746668 0.022293337 0.61600006 9.0297613e-39
0.29075432 0.022365715 0.61800003 9.3063482e-39
0.29310858 0.022365715 0.61800003 8.5691461e-39
0.29594097 0.022401907 0.61900002 7.7393854e-39
0.29829907 0.022401907 0.61900002 7.8319468e-39
0.30114287 0.022438094 0.62 8.4773162e-39
0.30350477 0.022438094 0.62 8.4769533e-39
0.30586666 0.022438094 0.62 8.3847576e-39
0.30822858 0.022438094 0.62 8.3894142e-39
0.31059048 0.022438094 0.62 7.928436e-39
0.31295237 0.022438094 0.62 8.3861898e-39
0.31582287 0.022474287 0.62100005 8.2017985e-39
nan nan nan 8.2965123e-39
nan nan nan 8.6652948e-39
nan nan nan 9.6747608e-39
nan nan nan 7.5542613e-39
nan nan nan 8.2943347e-39
nan nan nan 7.9255521e-39
nan nan nan 8.7520758e-39
nan nan nan 8.4754889e-39
nan nan nan 7.9244703e-39
nan nan nan 8.016666e-39
nan nan nan 7.8315713e-39
nan nan nan 8.2003538e-39
nan nan nan 8.6602557e-39
nan nan nan 8.4758645e-39
nan nan nan 7.7400945e-39
nan nan nan 8.2010726e-39
nan nan nan 7.2794512e-39
nan nan nan 8.9389726e-39
nan nan nan 7.7397414e-39
nan nan nan 7.6475457e-39
nan nan nan 7.6453905e-39
nan nan nan 8.0141731e-39
nan nan nan 7.4634922e-39
nan nan nan 6.8181228e-39
nan nan nan 7.9233913e-39
nan nan nan 7.6468044e-39
nan nan nan 1.0234409e-38
nan nan nan 1.0510995e-38
nan nan nan 1.0603191e-38
nan nan nan 1.0787582e-38
-0.3678686 0.024840003 0.62100005 1.0695397e-38
-0.36550289 0.024840003 0.62100005 1.0603201e-38
-0.36255237 0.024800001 0.62 9.9556833e-39
-0.36019048 0.024800001 0.62 1.023227e-38
-0.35782856 0.024800001 0.62 1.115456e-38
-0.35661337 0.024880001 0.62200004 1.1707734e-38
-0.35424381 0.024880001 0.62200004 1.0234403e-38
-0.35187429 0.024880001 0.62200004 9.6812292e-39
-0.34838092 0.024800001 0.62 1.0048212e-38
-0.34546095 0.02476 0.61900002 1.0509191e-38
-0.34144002 0.024640001 0.61600006 1.1153857e-38
-0.33854285 0.024599999 0.61500001 1.1522639e-38
-0.3362 0.024599999 0.61500001 1.0142226e-38
-0.33385715 0.024599999 0.61500001 1.1156377e-38
-0.33205336 0.024640001 0.61600006 1.1800309e-38
-0.32970667 0.024640001 0.61600006 1.1062744e-38
-0.32948571 0.024800001 0.62 1.2351684e-38
-0.32712382 0.024800001 0.62 1.1337532e-38
-0.32528573 0.024840003 0.62100005 1.0879778e-38
-0.32239997 0.024800001 0.62 1.0695387e-38
-0.32003811 0.024800001 0.62 1.0693582e-38
-0.3171638 0.02476 0.61900002 1.1892125e-38
-0.31429717 0.02472 0.61800003 1.1431514e-38
-0.31194288 0.02472 0.61800003 1.1339318e-38
-0.30958858 0.02472 0.61800003 1.1523712e-38
-0.30723429 0.02472 0.61800003 1.1615908e-38
-0.30586666 0.024800001 0.62 1.1981466e-38
-0.30301526 0.02476 0.61900002 1.2165857e-38
-0.29920003 0.024640001 0.61600006 1.2074741e-38
-0.29685333 0.024640001 0.61600006 1.0230828e-38
-0.2945067 0.024640001 0.61600006 1.0970166e-38
-0.29216003 0.024640001 0.61600006 1.2076513e-38
-0.28981334 0.024640001 0.61600006 1.2074362e-38
-0.28886667 0.02476 0.61900002 1.2350949e-38
-0.28604573 0.02472 0.61800003 1.1523712e-38
-0.28231427 0.024599999 0.61500001 1.1615908e-38
-0.27997142 0.024599999 0.61500001 1.2536069e-38
-0.27762857 0.024599999 0.61500001 1.2904852e-38
-0.27662858 0.02472 0.61800003 1.2350952e-38
-0.27427429 0.02472 0.61800003 1.2166561e-38
-0.27192003 0.02472 0.61800003 1.2536069e-38
-0.26956573 0.02472 0.61800003 1.2536069e-38
-0.26721144 0.02472 0.61800003 1.2995243e-38
-0.26485714 0.02472 0.61800003 1.3640612e-38
-0.26250288 0.02472 0.61800003 1.1984703e-38
-0.2593067 0.024640001 0.61600006 1.2537877e-38
-0.25654286 0.024599999 0.61500001 1.4103401e-38
-0.25378668 0.024560001 0.61400002 1.327364e-38
-0.25144765 0.024560001 0.61400002 1.2995618e-38
-0.24910857 0.024560001 0.61400002 1.2995618e-38
-0.24636762 0.024520002 0.61300004 1.2814101e-38
-0.24363431 0.024480002 0.61200005 1.2814101e-38
-0.24090856 0.02444 0.611 1.3732454e-38
-0.23858094 0.02444 0.611 1.2994889e-38
-0.23702669 0.024520002 0.61300004 1.3087804e-38
-0.23469144 0.024520002 0.61300004 1.2903413e-38
-0.23273525 0.024560001 0.61400002 1.2905941e-38
-0.22964573 0.024480002 0.61200005 1.2905941e-38
-0.22731431 0.024480002 0.61200005 1.2997401e-38
-0.22571811 0.024560001 0.61400002 1.3550574e-38
-0.22337905 0.024560001 0.61400002 1.3917196e-38
-0.22139999 0.024599999 0.61500001 1.4378174e-38
-0.21905714 0.024599999 0.61500001 1.2906297e-38
-0.21671429 0.024599999 0.61500001 1.262971e-38
-0.21402287 0.024560001 0.61400002 1.3088893e-38
-0.21168381 0.024560001 0.61400002 1.4010849e-38
-0.20934477 0.024560001 0.61400002 1.1800299e-38
-0.20700571 0.024560001 0.61400002 1.2261277e-38
-0.205 0.024599999 0.61500001 1.4288881e-38
-0.20265715 0.024599999 0.61500001 1.3366924e-38
-0.19933715 0.024480002 0.61200005 1.3825019e-38
-0.19700573 0.024480002 0.61200005 1.3548432e-38
-0.19499238 0.024520002 0.61300004 1.317893e-38
-0.19265714 0.024520002 0.61300004 1.4100887e-38
-0.18939048 0.024400001 0.61000001 1.3368717e-38
-0.18676001 0.024360001 0.60900003 1.2999934e-38
-0.18444 0.024360001 0.60900003 1.3644222e-38
-0.18241905 0.024400001 0.61000001 1.3644222e-38
-0.18009524 0.024400001 0.61000001 1.3460174e-38
-0.17777143 0.024400001 0.61000001 1.3275783e-38
-0.17544761 0.024400001 0.61000001 1.345947e-38
-0.17284001 0.024360001 0.60900003 1.3182883e-38
-0.17024001 0.024320001 0.60800004 1.4103032e-38
-0.16792381 0.024320001 0.60800004 1.4287423e-38
-0.16560763 0.024320001 0.60800004 1.2719375e-38
-0.16329144 0.024320001 0.60800004 1.4194505e-38
-0.16097525 0.024320001 0.60800004 1.4562581e-38
-0.15865906 0.024320001 0.60800004 1.4470385e-38
-0.15608573 0.02428 0.60700005 1.3550227e-38
-0.15377335 0.02428 0.60700005 1.2720466e-38
-0.15146096 0.02428 0.60700005 1.3828956e-38
-0.1493943 0.024320001 0.60800004 1.4013348e-38
-0.14949715 0.02472 0.61800003 1.4198468e-38
-0.14523809 0.024400001 0.61000001 1.3737489e-38
-0.14268 0.024360001 0.60900003 1.4287051e-38
-0.14036 0.024360001 0.60900003 1.4287051e-38
-0.13758668 0.02428 0.60700005 1.4470751e-38
-0.13527429 0.02428 0.60700005 1.5023925e-38
-0.13318096 0.024320001 0.60800004 1.4564366e-38
-0.13064952 0.02428 0.60700005 1.4748757e-38
-0.12833716 0.02428 0.60700005 1.447002e-38
-0.12664761 0.024400001 0.61000001 1.5484171e-38
-0.12432382 0.024400001 0.61000001 1.5208657e-38
-0.122 0.024400001 0.61000001 1.493207e-38
-0.1196762 0.024400001 0.61000001 1.4378896e-38
-0.11754476 0.02444 0.611 1.5485243e-38
-0.11521714 0.02444 0.611 1.5485606e-38
-0.11233525 0.024320001 0.60800004 1.4194868e-38
-0.11001905 0.024320001 0.60800004 1.5484525e-38
-0.10770286 0.024320001 0.60800004 1.4654764e-38
-0.10538667 0.024320001 0.60800004 1.4194517e-38
-0.10324001 0.024360001 0.60900003 1.4655495e-38
-0.10108571 0.024400001 0.61000001 1.4379269e-38
-0.09892381 0.02444 0.611 1.5301225e-38
-0.096596189 0.02444 0.611 1.4657285e-38
-0.094422862 0.024480002 0.61200005 1.4565089e-38
-0.091489524 0.024320001 0.60800004 1.5669279e-38
-0.089026667 0.02428 0.60700005 1.6038061e-38
-0.086571433 0.02424 0.60600001 1.4933149e-38
-0.084262855 0.02424 0.60600001 1.5209736e-38
-0.081954286 0.02424 0.60600001 1.3367978e-38
-0.079777151 0.02428 0.60700005 1.3183587e-38
-0.077464767 0.02428 0.60700005 1.5391613e-38
-0.075152382 0.02428 0.60700005 1.4746243e-38
-0.072960004 0.024320001 0.60800004 1.4749118e-38
-0.070760004 0.024360001 0.60900003 1.5025704e-38
-0.068327621 0.024320001 0.60800004 1.5393774e-38
-0.066011429 0.024320001 0.60800004 1.2259122e-38
-0.063695244 0.024320001 0.60800004 1.5208301e-38
-0.061379053 0.024320001 0.60800004 1.5392692e-38
-0.059160002 0.024360001 0.60900003 1.6128099e-38
-0.056840003 0.024360001 0.60900003 1.6035903e-38
-0.054251429 0.02424 0.60600001 1.594731e-38
-0.051942859 0.02424 0.60600001 1.594731e-38
-0.049634285 0.02424 0.60600001 1.4470373e-38
-0.047169525 0.024160001 0.60400003 1.5668916e-38
-0.044868574 0.024160001 0.60400003 1.6868188e-38
-0.042849526 0.024320001 0.60800004 1.5116471e-38
-0.040533334 0.024320001 0.60800004 1.5299783e-38
-0.038217146 0.024320001 0.60800004 1.5299783e-38
-0.035960004 0.024360001 0.60900003 1.3183947e-38
-0.033584766 0.024320001 0.60800004 1.3921512e-38
-0.031217147 0.02428 0.60700005 1.5116481e-38
-0.028857144 0.02424 0.60600001 1.5669654e-38
-0.026460955 0.024160001 0.60400003 1.5392344e-38
-0.024160001 0.024160001 0.60400003 1.6037714e-38
-0.02185905 0.024160001 0.60400003 1.4931726e-38
-0.019558096 0.024160001 0.60400003 1.5023922e-38
-0.017257143 0.024160001 0.60400003 1.4378553e-38
-0.014956191 0.024160001 0.60400003 1.5116118e-38
-0.012655239 0.024160001 0.60400003 1.5948014e-38
-0.010388572 0.02424 0.60600001 1.4749471e-38
-0.0080800001 0.02424 0.60600001 1.6128105e-38
-0.005780953 0.02428 0.60700005 1.62203e-38
-0.0034742858 0.024320001 0.60800004 1.5581402e-38
-0.0011542857 0.02424 0.60600001 1.5028228e-38
0.0011504763 0.024160001 0.60400003 1.5581046e-38
0.0034514286 0.024160001 0.60400003 1.4105916e-38
0.0057523814 0.024160001 0.60400003 1.548632e-38
0.0080800001 0.02424 0.60600001 1.6131689e-38
0.010542857 0.024599999 0.61500001 1.5944434e-38
0.012697143 0.02424 0.60600001 1.539126e-38
0.015005714 0.02424 0.60600001 1.6036982e-38
0.017371429 0.024320001 0.60800004 1.5852591e-38
0.019655241 0.02428 0.60700005 1.5762556e-38
0.021967622 0.02428 0.60700005 1.5485969e-38
0.02428 0.02428 0.60700005 1.5670361e-38
0.026636193 0.024320001 0.60800004 1.48406e-38
0.028952383 0.024320001 0.60800004 1.5764008e-38
0.031217147 0.02428 0.60700005 1.4842052e-38
0.033529524 0.02428 0.60700005 1.7052566e-38
0.035841908 0.02428 0.60700005 1.6315001e-38
0.038091429 0.02424 0.60600001 1.6406491e-38
0.040400002 0.02424 0.60600001 1.6222099e-38
0.042779051 0.02428 0.60700005 1.6039143e-38
0.045091432 0.02428 0.60700005 1.5485969e-38
0.047403816 0.02428 0.60700005 1.493207e-38
0.049716193 0.02428 0.60700005 1.5300852e-38
0.052028574 0.02428 0.60700005 1.4932796e-38
0.054430481 0.024320001 0.60800004 1.5393774e-38
0.056746669 0.024320001 0.60800004 1.5116471e-38
0.05896572 0.02428 0.60700005 1.5208666e-38
0.061278097 0.02428 0.60700005 1.6037335e-38
0.063695244 0.024320001 0.60800004 1.594514e-38
0.066011429 0.024320001 0.60800004 1.465513e-38
0.068327621 0.024320001 0.60800004 1.3364391e-38
0.070643812 0.024320001 0.60800004 1.391829e-38
0.072960004 0.024320001 0.60800004 1.4748051e-38
0.075276196 0.024320001 0.60800004 1.4654786e-38
0.077592388 0.024320001 0.60800004 1.5300156e-38
0.07990858 0.024320001 0.60800004 1.4566184e-38
0.082224764 0.024320001 0.60800004 1.336764e-38
0.084540956 0.024320001 0.60800004 1.4285628e-38
0.086857148 0.024320001 0.60800004 1.5852954e-38
0.089173339 0.024320001 0.60800004 1.4379606e-38
0.091640003 0.024360001 0.60900003 1.5301563e-38
0.093960002 0.024360001 0.60900003 1.4286707e-38
0.096280001 0.024360001 0.60900003 1.4563294e-38
0.098600008 0.024360001 0.60900003 1.3455858e-38
0.10092 0.024360001 0.60900003 1.4930988e-38
0.10324001 0.024360001 0.60900003 1.4930635e-38
0.10556 0.024360001 0.60900003 1.5391613e-38
0.10788 0.024360001 0.60900003 1.4656209e-38
0.1102 0.024360001 0.60900003 1.189034e-38
0.11233525 0.024320001 0.60800004 1.3455517e-38
0.11465143 0.024320001 0.60800004 1.3732104e-38
0.11696763 0.024320001 0.60800004 1.4748755e-38
0.1196762 0.024400001 0.61000001 1.5762907e-38
0.122 0.024400001 0.61000001 1.613097e-38
0.12452762 0.02444 0.611 1.5393405e-38
0.12685524 0.02444 0.611 1.5393048e-38
0.12897143 0.024400001 0.61000001 1.5024265e-38
0.13129523 0.024400001 0.61000001 1.5024641e-38
0.13340001 0.024360001 0.60900003 1.4287076e-38
0.13572001 0.024360001 0.60900003 1.4468931e-38
0.13804001 0.024360001 0.60900003 1.5206496e-38
0.14036 0.024360001 0.60900003 1.5209736e-38
0.14291428 0.024400001 0.61000001 1.4287779e-38
0.14523809 0.024400001 0.61000001 1.4101953e-38
0.14780381 0.02444 0.611 1.3917562e-38
0.15013143 0.02444 0.611 1.4289579e-38
0.15245904 0.02444 0.611 1.4381774e-38
0.15478666 0.02444 0.611 1.2536778e-38
0.15711428 0.02444 0.611 1.2352387e-38
0.15970287 0.024480002 0.61200005 1.5023909e-38
0.1620343 0.024480002 0.61200005 1.4747322e-38
0.16436572 0.024480002 0.61200005 1.4747691e-38
0.16669716 0.024480002 0.61200005 1.4010126e-38
0.16902858 0.024480002 0.61200005 1.4007592e-38
0.17136 0.024480002 0.61200005 1.511394e-38
0.17369144 0.024480002 0.61200005 1.2535343e-38
0.17602287 0.024480002 0.61200005 1.3641691e-38
0.17835431 0.024480002 0.61200005 1.2812296e-38
0.18068573 0.024480002 0.61200005 1.4010839e-38
0.18301715 0.024480002 0.61200005 1.4286347e-38
0.18534859 0.024480002 0.61200005 1.400976e-38
0.18768001 0.024480002 0.61200005 1.4103751e-38
0.19032191 0.024520002 0.61300004 1.3642773e-38
0.19265714 0.024520002 0.61300004 1.4194505e-38
0.19499238 0.024520002 0.61300004 1.4563287e-38
0.19732763 0.024520002 0.61300004 1.3733526e-38
0.19966286 0.024520002 0.61300004 1.4010113e-38
0.2019981 0.024520002 0.61300004 1.3733173e-38
0.20433335 0.024520002 0.61300004 1.3917565e-38
0.20666859 0.024520002 0.61300004 1.3546974e-38
0.20934477 0.024560001 0.61400002 1.3731366e-38
0.21202858 0.024599999 0.61500001 1.4286707e-38
0.21402287 0.024560001 0.61400002 1.4563294e-38
0.21636191 0.024560001 0.61400002 1.474912e-38
0.21870095 0.024560001 0.61400002 1.3827164e-38
0.22139999 0.024599999 0.61500001 1.3552016e-38
0.22337905 0.024560001 0.61400002 1.2998843e-38
0.22571811 0.024560001 0.61400002 1.3733884e-38
0.22805715 0.024560001 0.61400002 1.3457297e-38
0.2303962 0.024560001 0.61400002 1.3916483e-38
0.23311429 0.024599999 0.61500001 1.3916483e-38
0.23545715 0.024599999 0.61500001 1.3180353e-38
0.2378 0.024599999 0.61500001 1.3549135e-38
0.24014287 0.024599999 0.61500001 1.2812656e-38
0.24248572 0.024599999 0.61500001 1.2351678e-38
0.24482858 0.024599999 0.61500001 1.2350589e-38
0.24717143 0.024599999 0.61500001 1.2995959e-38
0.24951427 0.024599999 0.61500001 1.3825717e-38
0.25226671 0.024640001 0.61600006 1.3917912e-38
0.25461334 0.024640001 0.61600006 1.3182148e-38
0.25696 0.024640001 0.61600006 1.2905561e-38
0.2593067 0.024640001 0.61600006 1.3456586e-38
0.26165336 0.024640001 0.61600006 1.2995608e-38
0.264 0.024640001 0.61600006 1.2443148e-38
0.26634669 0.024640001 0.61600006 1.1705583e-38
0.26825714 0.024599999 0.61500001 1.2074368e-38
0.27059999 0.024599999 0.61500001 1.1797781e-38
0.27338669 0.024640001 0.61600006 1.1243523e-38
0.27573335 0.024640001 0.61600006 1.152011e-38
0.27808005 0.024640001 0.61600006 1.0691081e-38
0.28133717 0.02472 0.61800003 1.0414494e-38
0.28369144 0.02472 0.61800003 1.0689633e-38
0.28512004 0.024640001 0.61600006 9.7676767e-39
0.28746668 0.024640001 0.61600006 9.2145183e-39
0.29075432 0.02472 0.61800003 9.2145183e-39
0.29310858 0.02472 0.61800003 9.2145183e-39
0.29546288 0.02472 0.61800003 8.5691489e-39
0.29829907 0.02476 0.61900002 9.0330011e-39
0.30065715 0.02476 0.61900002 8.6642186e-39
0.30301526 0.02476 0.61900002 7.7433413e-39
0.30537334 0.02476 0.61900002 9.2184714e-39
0.30773145 0.02476 0.61900002 1.0690702e-38
0.31008953 0.02476 0.61900002 9.1233765e-39
0.31244764 0.02476 0.61900002 8.4769561e-39
0.31531429 0.024800001 0.62 8.753543e-39
nan nan nan 7.8348111e-39
nan nan nan 7.9270067e-39
nan nan nan 9.4003417e-39
nan nan nan 8.2939941e-39
nan nan nan 7.6514988e-39
nan nan nan 7.4671075e-39
nan nan nan 7.6478989e-39
nan nan nan 7.1869207e-39
nan nan nan 8.5687635e-39
nan nan nan 8.5687635e-39
nan nan nan 7.6486023e-39
nan nan nan 7.8329936e-39
nan nan nan 7.8322747e-39
nan nan nan 8.016666e-39
nan nan nan 8.2929123e-39
nan nan nan 7.1865648e-39
nan nan nan 6.7251873e-39
nan nan nan 7.6471436e-39
nan nan nan 7.2773241e-39
nan nan nan 6.8163459e-39
nan nan nan 6.2667665e-39
nan nan nan 6.8199403e-39
nan nan nan 7.1861822e-39
nan nan nan 7.4627691e-39
nan nan nan 7.2790981e-39
nan nan nan 6.9103156e-39
nan nan nan 1.1152419e-38
nan nan nan 1.1060223e-38
nan nan nan 9.9585349e-39
nan nan nan 1.0603904e-38
nan nan nan 1.0602132e-38
-0.36609146 0.027249524 0.62200004 1.0602132e-38
-0.36372191 0.027249524 0.62200004 1.0695747e-38
-0.36135238 0.027249524 0.62200004 1.0326964e-38
-0.35898289 0.027249524 0.62200004 1.0785424e-38
-0.35776001 0.027337143 0.62400001 1.1154207e-38
-0.35538286 0.027337143 0.62400001 1.0414844e-38
-0.35244 0.027293334 0.62300003 1.1797778e-38
-0.34950477 0.027249524 0.62200004 1.1613737e-38
-0.34713528 0.027249524 0.62200004 1.1429346e-38
-0.34476572 0.027249524 0.62200004 1.124856e-38
-0.34294668 0.027293334 0.62300003 1.0971974e-38
-0.34057334 0.027293334 0.62300003 1.0602485e-38
-0.33874285 0.027337143 0.62400001 1.1155659e-38
-0.33582667 0.027293334 0.62300003 1.1616261e-38
-0.33345333 0.027293334 0.62300003 1.1155283e-38
-0.33107999 0.027293334 0.62300003 1.1154577e-38
-0.32870668 0.027293334 0.62300003 1.1062381e-38
-0.32633334 0.027293334 0.62300003 1.1615918e-38
-0.32396001 0.027293334 0.62300003 1.1431527e-38
-0.32158667 0.027293334 0.62300003 1.1616261e-38
-0.31921333 0.027293334 0.62300003 1.0970892e-38
-0.31633145 0.027249524 0.62200004 1.1429715e-38
-0.31396192 0.027249524 0.62200004 1.1614106e-38
-0.31209335 0.027293334 0.62300003 1.2259475e-38
-0.30922288 0.027249524 0.62200004 1.1982889e-38
-0.30685335 0.027249524 0.62200004 1.2076536e-38
-0.30497333 0.027293334 0.62300003 1.2445318e-38
-0.30211431 0.027249524 0.62200004 1.1336816e-38
-0.29878095 0.027161906 0.62 1.1060229e-38
-0.29641902 0.027161906 0.62 8.017368e-39
-0.29405716 0.027161906 0.62 1.0967628e-38
-0.29169524 0.027161906 0.62 1.1244614e-38
-0.28933331 0.027161906 0.62 1.1521201e-38
-0.28697142 0.027161906 0.62 1.2074368e-38
-0.28460953 0.027161906 0.62 1.2811933e-38
-0.28224763 0.027161906 0.62 1.2902694e-38
-0.27988571 0.027161906 0.62 1.2810498e-38
-0.27752382 0.027161906 0.62 1.2907366e-38
-0.27516192 0.027161906 0.62 1.1893214e-38
-0.27236 0.027118096 0.61900002 1.216728e-38
-0.27000192 0.027118096 0.61900002 1.2628258e-38
-0.26807621 0.027161906 0.62 1.226128e-38
-0.26571429 0.027161906 0.62 1.226128e-38
-0.26335236 0.027161906 0.62 1.1431514e-38
-0.26099047 0.027161906 0.62 1.2906644e-38
-0.25862858 0.027161906 0.62 1.3363322e-38
-0.25626668 0.027161906 0.62 1.3455517e-38
-0.25472382 0.027249524 0.62200004 1.244316e-38
-0.25154284 0.027161906 0.62 1.3272921e-38
-0.24918096 0.027161906 0.62 1.1892145e-38
-0.24642095 0.027118096 0.61900002 1.2537514e-38
-0.24406287 0.027118096 0.61900002 1.3641331e-38
-0.24209523 0.027161906 0.62 1.3180353e-38
-0.23934667 0.027118096 0.61900002 1.318253e-38
-0.23698857 0.027118096 0.61900002 1.2260574e-38
-0.23500952 0.027161906 0.62 1.2999561e-38
-0.23264761 0.027161906 0.62 1.281517e-38
-0.22991429 0.027118096 0.61900002 1.373425e-38
-0.2275562 0.027118096 0.61900002 1.2996685e-38
-0.2251981 0.027118096 0.61900002 1.3825717e-38
-0.22284001 0.027118096 0.61900002 1.4102303e-38
-0.22048192 0.027118096 0.61900002 1.2904857e-38
-0.21777143 0.027074287 0.61800003 1.327364e-38
-0.21472003 0.026986668 0.61600006 1.3640627e-38
-0.21237335 0.026986668 0.61600006 1.4654779e-38
-0.21002668 0.026986668 0.61600006 1.3549871e-38
-0.20768002 0.026986668 0.61600006 1.3918653e-38
-0.20600002 0.027074287 0.61800003 1.3826445e-38
-0.20364572 0.027074287 0.61800003 1.3549858e-38
-0.20129144 0.027074287 0.61800003 1.5118266e-38
-0.19893715 0.027074287 0.61800003 1.4565092e-38
-0.19658287 0.027074287 0.61800003 1.4103401e-38
-0.19454286 0.027118096 0.61900002 1.4103401e-38
-0.19249523 0.027161906 0.62 1.4102685e-38
-0.18982667 0.027118096 0.61900002 1.5024641e-38
-0.18746857 0.027118096 0.61900002 1.3827897e-38
-0.18391429 0.026942858 0.61500001 1.3643506e-38
-0.1812762 0.026899049 0.61400002 1.456365e-38
-0.17893714 0.026899049 0.61400002 1.4932433e-38
-0.1765981 0.026899049 0.61400002 1.3826448e-38
-0.17454286 0.026942858 0.61500001 1.4564013e-38
-0.17219999 0.026942858 0.61500001 1.4194517e-38
-0.16985714 0.026942858 0.61500001 1.3180365e-38
-0.16696952 0.02685524 0.61300004 1.3457312e-38
-0.1646343 0.02685524 0.61300004 1.4471464e-38
-0.16282856 0.026942858 0.61500001 1.4562594e-38
-0.16048571 0.026942858 0.61500001 1.4654789e-38
-0.15814286 0.026942858 0.61500001 1.4103401e-38
-0.1558 0.026942858 0.61500001 1.4472183e-38
-0.15320763 0.026899049 0.61400002 1.4932793e-38
-0.15086856 0.026899049 0.61400002 1.5024988e-38
-0.14949715 0.027074287 0.61800003 1.4565089e-38
-0.14619048 0.026899049 0.61400002 1.4657285e-38
-0.14385143 0.026899049 0.61400002 1.474948e-38
-0.14151239 0.026899049 0.61400002 1.4841676e-38
-0.13849333 0.026767619 0.611 1.5300149e-38
-0.13616571 0.026767619 0.611 1.4562584e-38
-0.13383809 0.026767619 0.611 1.5023546e-38
-0.13151047 0.026767619 0.611 1.474696e-38
-0.12960573 0.02685524 0.61300004 1.5760411e-38
-0.12727048 0.02685524 0.61300004 1.5852606e-38
-0.12493524 0.02685524 0.61300004 1.5116108e-38
-0.12260001 0.02685524 0.61300004 1.5945868e-38
-0.12006857 0.02681143 0.61200005 1.4473973e-38
-0.11773715 0.02681143 0.61200005 1.4381777e-38
-0.11540572 0.02681143 0.61200005 1.6313566e-38
-0.11288952 0.026767619 0.611 1.6221371e-38
-0.11038096 0.026723811 0.61000001 1.5116831e-38
-0.10805714 0.026723811 0.61000001 1.6223178e-38
-0.10573334 0.026723811 0.61000001 1.5394856e-38
-0.10340952 0.026723811 0.61000001 1.4749486e-38
-0.10141715 0.02681143 0.61200005 1.5762916e-38
-0.099247627 0.02685524 0.61300004 1.484096e-38
-0.097070478 0.026899049 0.61400002 1.5762556e-38
-0.094731428 0.026899049 0.61400002 1.6039143e-38
-0.092392378 0.026899049 0.61400002 1.5487401e-38
-0.089466669 0.026723811 0.61000001 1.5487401e-38
-0.087000005 0.026680002 0.60900003 1.6408286e-38
-0.084679998 0.026680002 0.60900003 1.5670721e-38
-0.082630478 0.026767619 0.611 1.5762193e-38
-0.080302857 0.026767619 0.611 1.5946585e-38
-0.077975236 0.026767619 0.611 1.5392332e-38
-0.075771436 0.02681143 0.61200005 1.6222092e-38
-0.073440008 0.02681143 0.61200005 1.6037358e-38
-0.07110858 0.02681143 0.61200005 1.5299793e-38
-0.068777144 0.02681143 0.61200005 1.594515e-38
-0.066445716 0.02681143 0.61200005 1.5852954e-38
-0.064009525 0.026767619 0.611 1.4564373e-38
-0.061681904 0.026767619 0.611 1.5209743e-38
-0.059354283 0.026767619 0.611 1.6038064e-38
-0.057120007 0.02681143 0.61200005 1.6406847e-38
-0.054967623 0.026899049 0.61400002 1.6036995e-38
-0.052542858 0.02685524 0.61300004 1.677456e-38
-0.05004381 0.026767619 0.611 1.5668553e-38
-0.047716193 0.026767619 0.611 1.6406118e-38
-0.045388572 0.026767619 0.611 1.5393784e-38
-0.042990476 0.026723811 0.61000001 1.4103045e-38
-0.040666666 0.026723811 0.61000001 1.5300872e-38
-0.03834286 0.026723811 0.61000001 1.5946241e-38
-0.036078095 0.026767619 0.611 1.5853304e-38
-0.03369524 0.026723811 0.61000001 1.6590869e-38
-0.031320002 0.026680002 0.60900003 1.6407212e-38
-0.029000001 0.026680002 0.60900003 1.6222821e-38
-0.026680002 0.026680002 0.60900003 1.5119342e-38
-0.024360001 0.026680002 0.60900003 1.4934951e-38
-0.022184763 0.02685524 0.61300004 1.5487048e-38
-0.019849524 0.02685524 0.61300004 1.5394853e-38
-0.017485715 0.02681143 0.61200005 1.5854411e-38
-0.015154287 0.02681143 0.61200005 1.5762216e-38
-0.01276 0.026680002 0.60900003 1.6407194e-38
-0.01044 0.026680002 0.60900003 1.7144759e-38
-0.0081200004 0.026680002 0.60900003 1.5578525e-38
-0.0057999999 0.026680002 0.60900003 1.5117547e-38
-0.0034857143 0.026723811 0.61000001 1.5393418e-38
-0.0011580953 0.026636193 0.60800004 1.6038787e-38
0.0011580953 0.026636193 0.60800004 1.7052579e-38
0.0034742858 0.026636193 0.60800004 1.6130623e-38
0.0058571431 0.026942858 0.61500001 1.5762916e-38
0.0082 0.026942858 0.61500001 1.4933156e-38
